# .PCD v0.7 - Point Cloud Data file format
VERSION 0.7
FIELDS x y z
SIZE 4 4 4
TYPE F F F
COUNT 1 1 1
WIDTH 1234
HEIGHT 1
VIEWPOINT 0 0 0 1 0 0 0
POINTS 1234
DATA ascii
-0.04292259 0.025551435 0.013163946
-0.044731714 -0.021264728 0.022203371
-0.044761516 -0.01819065 0.024551349
-0.044820108 0.018040406 0.021349126
-0.044713389 0.020480113 0.018351313
-0.044647716 -0.015914958 0.025971821
-0.044793211 -0.012213437 0.027595952
-0.044828113 -0.0066128825 0.028580293
-0.044995662 -0.00214419 0.028860733
-0.043932654 0.0007954 0.029166894
-0.044512726 0.0093251877 0.028225366
-0.044928052 0.013561905 0.025663242
-0.044839386 0.015620265 0.024010507
-0.045123253 0.0031816107 0.029474327
-0.045326106 0.0067795841 0.029162517
-0.039589409 -0.015006895 -0.026296051
-0.039681889 -0.010301308 -0.028533859
-0.039683972 -0.0057578655 -0.029490845
-0.039696738 -0.0011426125 -0.029338486
-0.039708376 0.0043708915 -0.029538704
-0.039512426 0.010074127 -0.029088108
-0.039595217 0.013947386 -0.027525498
-0.03930825 -0.020016249 -0.022392696
-0.040620983 -0.017416405 -0.024590895
-0.039769623 0.016112324 -0.026117068
-0.039758094 0.01860244 -0.023451759
-0.039772276 -0.028079638 -0.01438865
-0.038827352 -0.024822179 -0.017947411
-0.039900322 0.021073608 -0.019397104
-0.039691605 -0.030027267 -0.011619358
-0.039872196 0.022345215 -0.016906293
-0.039825365 0.023957815 -0.014342837
-0.039851222 -0.031706773 -0.0051173191
-0.039825421 -0.03149987 -0.0078938259
-0.039799485 0.026815835 -0.010158259
-0.039886609 -0.031446584 -0.0014500162
-0.040187202 0.029501885 -0.0049179308
-0.038994137 -0.031195831 0.0013057183
-0.040103581 -0.030292906 0.0034972345
-0.040219143 0.030217361 -0.00053947262
-0.040019494 -0.027395297 0.008380888
-0.040111873 0.02928165 0.0065915813
-0.040086702 0.029829135 0.0037930235
-0.040340457 -0.025609151 0.012598674
-0.039752495 -0.024787078 0.015007455
-0.040246274 0.027848935 0.010368529
-0.040146761 -0.023550034 0.018470578
-0.04037153 0.023263181 0.016151525
-0.040171899 0.025328197 0.013950769
-0.040351588 -0.020875588 0.021842169
-0.040070873 -0.017454527 0.02450374
-0.040512655 0.018956827 0.021564083
-0.039872453 0.02117062 0.019221991
-0.040491544 -0.015351348 0.025886601
-0.040207352 -0.012017944 0.027367068
-0.040230568 -0.0066149747 0.028417243
-0.040246226 -0.0019080316 0.028850975
-0.040256031 0.00080322218 0.029183151
-0.039908975 0.0085316505 0.028230065
-0.040255699 0.013412695 0.025881149
-0.040243343 0.016650682 0.023738556
-0.040263776 0.0035729138 0.029282907
-0.041187499 0.0063193068 0.029048864
-0.035233859 -0.01546861 -0.025627078
-0.035143014 -0.010662982 -0.027964594
-0.035090286 -0.0057339962 -0.029252816
-0.035103843 -0.0011134834 -0.029019196
-0.035116341 0.0044058249 -0.029129747
-0.035084888 0.0095009115 -0.028513094
-0.036381505 0.013206792 -0.027234191
-0.03511389 -0.020471165 -0.022317264
-0.033268206 -0.017397536 -0.024508575
-0.03510882 0.015470687 -0.024720216
-0.035327937 0.017936336 -0.022327008
-0.035175882 -0.027806085 -0.014501071
-0.035150245 -0.024859669 -0.017970312
-0.035210796 0.02088183 -0.019726893
-0.033435009 0.023582188 -0.017520884
-0.034610897 -0.029394181 -0.01166787
-0.035608053 0.02464661 -0.014815908
-0.0355892 -0.030731514 -0.0062580351
-0.035613399 0.026990755 -0.0095005138
-0.035591599 -0.030243263 -0.0014865239
-0.034320489 0.028060483 -0.0058776774
-0.036630876 0.02908442 -0.0050296551
-0.035600476 -0.029875107 0.0029668487
-0.035446778 0.029445263 -0.00074303325
-0.035446513 -0.028103611 0.0085078264
-0.034760542 0.02894696 0.0058686328
-0.036713082 0.029493889 0.0035401869
-0.035105791 -0.025950668 0.012360576
-0.035802901 -0.024261875 0.014915806
-0.035690043 0.027700901 0.010457854
-0.035444424 -0.021856902 0.018573441
-0.03595968 0.023758657 0.016056316
-0.035576846 0.025412917 0.01402875
-0.036174569 -0.020194562 0.021163383
-0.035496198 -0.017457711 0.023442401
-0.035489623 0.018866871 0.022122039
-0.035619792 0.021226788 0.01964532
-0.03743111 -0.014442374 0.026027776
-0.035705838 -0.012057658 0.026828315
-0.035446398 -0.0068836133 0.028029896
-0.035624079 -0.0016556617 0.028538335
-0.035297852 0.0028372232 0.028764961
-0.035765957 0.0077898093 0.027958976
-0.035691909 0.013161569 0.025687722
-0.035647847 0.016601678 0.023804253
-0.029865239 -0.014365957 -0.025435159
-0.029721294 -0.009851153 -0.027297515
-0.029579882 -0.0056917868 -0.028757587
-0.029587958 -0.0011081181 -0.029093184
-0.029642392 0.0048554298 -0.028756287
-0.030038271 0.0098137353 -0.027513102
-0.030115534 -0.019950984 -0.02229958
-0.029137615 -0.016898092 -0.024025204
-0.028733958 0.012083635 -0.0256299
-0.029812135 0.015058979 -0.023481285
-0.028783768 0.017783986 -0.021849718
-0.031504545 -0.027762789 -0.013936779
-0.029636983 -0.024707502 -0.017805561
-0.029724404 0.020549506 -0.02030332
-0.030670114 0.0232042 -0.01819337
-0.029972449 -0.028548703 -0.011717994
-0.029597368 0.024414597 -0.015309906
-0.029703327 -0.02911593 -0.0059944894
-0.03002182 0.026348624 -0.0098195942
-0.029709797 -0.028812116 -0.0014826145
-0.029954143 0.027944081 -0.0050636083
-0.029824462 -0.029009141 0.0030947695
-0.029715799 0.028448761 -0.00056543085
-0.030062523 -0.02814661 0.0085936142
-0.030417785 0.028446281 0.0046872916
-0.029926904 -0.026091881 0.013150536
-0.030516002 -0.024200933 0.015672585
-0.030200962 0.02730046 0.010604075
-0.029868878 -0.021647613 0.017938852
-0.028168801 -0.018999625 0.019787295
-0.029709715 0.02375667 0.016119113
-0.030062165 0.025441457 0.014075761
-0.030450918 -0.016964763 0.022327794
-0.030065607 -0.014244308 0.024720034
-0.029893175 0.018003378 0.022419784
-0.030243602 0.021319587 0.01936152
-0.030055042 -0.011594563 0.02630276
-0.030468617 -0.0069818902 0.027507886
-0.030126136 -0.0020217621 0.027941553
-0.030140713 0.0026055872 0.028280791
-0.030192792 0.0085603232 0.02682122
-0.03008648 0.013767731 0.02464197
-0.025304224 -0.013516594 -0.02525989
-0.024862263 -0.01050799 -0.026487309
-0.024988629 -0.0062129507 -0.028122107
-0.024992846 -0.0010938444 -0.0290034
-0.02501132 0.0044923695 -0.02850068
-0.025035754 0.0093758134 -0.027187021
-0.022495251 -0.022446947 -0.019184355
-0.025149383 -0.02043752 -0.021330096
-0.025006048 -0.01656686 -0.0236017
-0.025060371 0.012186491 -0.025317246
-0.025089212 0.015463099 -0.023121791
-0.024570581 -0.024962176 -0.016681027
-0.025233135 0.020293389 -0.01996357
-0.024686716 -0.027799139 -0.011674536
-0.025276218 0.02457257 -0.014931998
-0.024784777 -0.028141776 -0.0063872123
-0.025372263 0.026647717 -0.010005614
-0.025186043 -0.028575661 -0.0014942104
-0.025103979 0.028143445 -0.005446427
-0.025228821 -0.029042836 0.0031412281
-0.025136281 0.028214134 -0.0009312511
-0.025282629 -0.028058209 0.0085650384
-0.025385853 0.027806865 0.0049866792
-0.02533083 -0.0260271 0.013125639
-0.025359545 -0.024402883 0.015735339
-0.025387857 0.026842024 0.01028007
-0.025347881 -0.021959132 0.01786009
-0.025418904 -0.018160863 0.020383133
-0.025349878 0.023313969 0.016212506
-0.025768224 0.025386967 0.013631247
-0.02543677 -0.01655308 0.021852253
-0.025674071 -0.01379679 0.024332678
-0.025390528 0.018139305 0.021843063
-0.025503661 0.021122258 0.019151388
-0.025673348 -0.011156928 0.026020134
-0.02559302 -0.0065616192 0.027372099
-0.025529101 -0.0020204014 0.027831839
-0.025542162 0.0025967732 0.028013889
-0.025567185 0.0079908716 0.026491821
-0.025448002 0.013349541 0.024306199
-0.022244021 -0.013712294 -0.024807986
-0.020354155 -0.010430209 -0.026012804
-0.020353779 -0.0057108505 -0.027842354
-0.020399332 -0.0010688686 -0.028748278
-0.020415761 0.0045223795 -0.028462218
-0.020176508 0.0092561301 -0.027221326
-0.020422596 -0.019995326 -0.021389548
-0.020279869 -0.01580116 -0.023560628
-0.020460788 0.012026495 -0.025654163
-0.020487003 0.014969666 -0.023649944
-0.020158377 -0.02449147 -0.015943473
-0.018602321 -0.021955451 -0.018969167
-0.020718124 0.019988732 -0.019960415
-0.022343792 -0.027290497 -0.010761227
-0.019689515 -0.026051473 -0.01194167
-0.020455312 0.024815541 -0.014620681
-0.021342665 -0.027121367 -0.0055928007
-0.019313984 -0.026253106 -0.0074217361
-0.020649083 0.026958173 -0.0096506961
-0.020365205 -0.028330456 -0.0010345862
-0.020703699 0.028104778 -0.0051846877
-0.020633154 -0.029092891 0.0031887458
-0.020738259 0.027994271 -0.00050740183
-0.02068609 -0.027914997 0.0084705045
-0.020789638 0.027459307 0.0050534587
-0.021089774 -0.026002673 0.012563856
-0.020590089 -0.024227496 0.015267362
-0.020801511 0.02632324 0.010331871
-0.02104757 -0.021416202 0.018208578
-0.020825412 -0.018135725 0.020640781
-0.020880543 0.023225345 0.015744343
-0.020839471 -0.016720157 0.021758305
-0.020871829 -0.013324304 0.024293091
-0.020470072 0.014724605 0.023131546
-0.020875446 0.017953245 0.021443384
-0.020905018 0.020936459 0.018920409
-0.020887375 -0.010430838 0.025932621
-0.021045573 -0.0065118168 0.027023414
-0.020639427 -0.0024460154 0.027446423
-0.020941216 0.0025718487 0.027498087
-0.021052379 0.0076949382 0.026110314
-0.021385983 0.012168919 0.024347199
-0.014893493 -0.0093838712 -0.025605964
-0.015166476 -0.0052250447 -0.027390584
-0.014889561 -0.00073361071 -0.028261969
-0.015153313 0.0042436989 -0.028017854
-0.014927439 0.0091924425 -0.026835732
-0.015001144 -0.019368358 -0.020877419
-0.014974136 -0.014796872 -0.022947015
-0.013981115 -0.011819107 -0.024254924
-0.01467168 0.012108224 -0.025269879
-0.015118375 0.01511284 -0.023143122
-0.015083402 -0.022564542 -0.016588446
-0.014094152 -0.02185517 -0.017976636
-0.014891617 0.019833412 -0.019514227
-0.015499569 -0.023912704 -0.011762449
-0.013218621 0.02276762 -0.016676836
-0.015384896 0.02433246 -0.014816114
-0.014591318 -0.027161874 -0.0043864306
-0.014879743 -0.025731482 -0.0073279804
-0.014891228 0.026377967 -0.010022293
-0.015083164 -0.028317694 -0.00068359927
-0.015179042 0.027512735 -0.0050282832
-0.014938306 -0.028723467 0.0035353517
-0.015222669 0.027507598 -0.00042275971
-0.015178829 -0.027241573 0.0089381859
-0.015277246 0.027149376 0.0054300306
-0.015670031 -0.025677403 0.012063788
-0.015240554 -0.023879297 0.014776938
-0.013501685 0.024830021 0.01266284
-0.015492039 0.025839387 0.010799727
-0.015275395 -0.021231897 0.017768065
-0.015299894 -0.01887022 0.019742005
-0.015367595 0.022865007 0.016075183
-0.015325235 -0.016145762 0.021710563
-0.015393885 -0.01317414 0.02386941
-0.015412014 0.014264285 0.022991102
-0.015586942 0.018006155 0.021081183
-0.015388951 0.020873325 0.018844968
-0.015835948 -0.010277131 0.025584608
-0.015224926 -0.0071292766 0.026426785
-0.015719544 -0.001694849 0.027087938
-0.015465599 0.0026438828 0.02699426
-0.015422851 0.0079958811 0.025758704
-0.015418649 0.011287939 0.02446227
-0.0093814041 -0.0091180606 -0.025346372
-0.0093763396 -0.0055285483 -0.026810907
-0.0093943886 -0.00098707923 -0.027797991
-0.0093955528 0.0045653116 -0.027397908
-0.0090434141 0.0081164585 -0.026677759
-0.0097638778 -0.01970165 -0.019743355
-0.0096258614 -0.015215529 -0.021973286
-0.008928379 -0.011961969 -0.023915589
-0.0094323456 0.01128195 -0.025254972
-0.0097672082 0.015196428 -0.022538418
-0.0099276062 -0.022644134 -0.015936466
-0.0094348677 -0.021248102 -0.018192671
-0.0095121861 0.019732112 -0.019018073
-0.009677384 -0.024351588 -0.011681011
-0.0095413774 0.022344984 -0.01661405
-0.0093411319 0.0239258 -0.013904416
-0.0093199089 -0.027245706 -0.0055824923
-0.010823449 -0.02583711 -0.0080529619
-0.0096779987 0.025945267 -0.0094603645
-0.009562321 -0.027900105 -0.0013874082
-0.0096636489 0.027134342 -0.0049506514
-0.0096843634 -0.028433168 0.0037085863
-0.0097074583 0.027228834 -0.00035157864
-0.0097073149 -0.026723543 0.0090523949
-0.0097307302 0.026872961 0.0051357043
-0.0096085463 -0.023978187 0.014013761
-0.0098245386 0.024459306 0.012722263
-0.0095391981 0.025735809 0.0099948831
-0.0097579602 -0.021091513 0.017495932
-0.0097837131 -0.018619087 0.019573415
-0.010027306 0.023034606 0.015211674
-0.0098034237 -0.016506046 0.021106254
-0.010001684 -0.012434599 0.023866761
-0.0097572953 0.014103247 0.022797989
-0.0097614471 0.017972367 0.020814508
-0.010239484 0.020620579 0.018705186
-0.01009275 -0.0070694983 0.02591846
-0.0098874252 -0.0020947843 0.026238186
-0.0098990537 0.0025127865 0.026271861
-0.0098441821 0.0083567351 0.025103085
-0.010819158 0.011576066 0.024019323
-0.0047859233 -0.0091062924 -0.025295293
-0.0047813412 -0.0055135302 -0.02670962
-0.0047846325 -0.00096197985 -0.027541423
-0.0048018824 0.0045892326 -0.02715908
-0.0048158728 0.0079126656 -0.026543431
-0.0045604557 -0.018987395 -0.019504065
-0.0048849639 -0.015268472 -0.02153643
-0.0047941674 -0.011988262 -0.023678781
-0.0048379991 0.011191579 -0.025057744
-0.0044157784 0.015008429 -0.022485236
-0.0057762656 -0.024030078 -0.013921182
-0.004826013 -0.020960409 -0.017993428
-0.0049165636 0.019752866 -0.018984172
-0.0050968099 -0.025159802 -0.011680678
-0.0049458239 0.022356182 -0.016570499
-0.0049748607 0.023849344 -0.013892902
-0.0047639813 -0.027327271 -0.0061127488
-0.0050244909 0.025752721 -0.0091480408
-0.0049667805 -0.027881533 -0.0013443341
-0.0050678458 0.027010782 -0.0048983749
-0.005009776 -0.028229512 0.0032833871
-0.0051120706 0.027330156 -0.00031386208
-0.0050681867 -0.026521958 0.0090056546
-0.0051626768 0.026849585 0.0051515065
-0.0051223338 -0.023975313 0.014060397
-0.0052283574 0.024129184 0.012787915
-0.0052058548 0.025511526 0.010054956
-0.005161304 -0.021018911 0.017407335
-0.0051868521 -0.018433116 0.019433703
-0.0052479375 0.022702824 0.015223863
-0.005206069 -0.016416093 0.020939274
-0.0052445102 -0.012191135 0.023901843
-0.005298065 0.01351483 0.022894392
-0.005286919 0.01787178 0.020589409
-0.0052738823 0.020354403 0.018570369
-0.0052763689 -0.0068061394 0.025868934
-0.0052930079 -0.0020758659 0.026399722
-0.005305076 0.0025346528 0.026478946
-0.005306486 0.008320787 0.025128767
-0.00015181303 -0.0090637133 -0.025226682
-0.00018734206 -0.0054917652 -0.026504105
-0.00019296538 -0.00092454586 -0.02709383
-0.00041457545 0.0048892237 -0.026804714
-0.00022459961 0.0083468659 -0.026157022
-0.00022306852 -0.018539347 -0.019353528
-0.00020690914 -0.01526031 -0.021444265
-0.00019860826 -0.011986486 -0.023632569
-0.00024362467 0.011102599 -0.024863096
-0.00027323049 0.014561194 -0.02263456
-0.0020998958 -0.024020521 -0.013878114
3.0618161e-05 -0.020551376 -0.017888593
-0.00046315044 0.019618994 -0.018825848
-0.00028011948 -0.025069337 -0.011640951
-0.00034981966 0.022126211 -0.016511332
-0.00042310916 0.02375555 -0.013662853
-0.0003385609 -0.027052388 -0.0049595181
-0.00031318888 -0.026209291 -0.0078555867
-0.00018078927 0.025554821 -0.0090009635
-0.00037088152 -0.028054563 -0.0012888543
-0.0004720455 0.026891345 -0.0048463652
-0.0004141368 -0.02826114 0.0033297115
-0.00051638298 0.027272515 -0.00026585328
-0.00038093328 -0.026338415 0.0087963976
-0.00056635216 0.026811758 0.0051271166
-0.00033587869 -0.023851709 0.01403509
-8.4539875e-05 0.023930386 0.012869238
-0.00060966797 0.025464965 0.010047432
-0.00056557264 -0.021008225 0.017432868
-0.00059127994 -0.018424721 0.019476747
-0.00078711193 0.02194684 0.015827229
-0.00015153456 -0.016353475 0.021035619
-0.00047129951 -0.012337364 0.023842528
-0.00070262607 0.013556685 0.022942897
-0.00068671349 0.018280046 0.020039842
-0.00068090763 -0.0068098088 0.025926817
-0.00069823675 -0.0020592932 0.026525028
-0.00071080681 0.0025545992 0.026656363
-0.00071049668 0.0082694236 0.025143245
0.005094151 -0.0087744966 -0.025241464
0.0053268792 -0.0054752105 -0.026405225
0.0053212186 -0.00090774073 -0.026991082
0.0054704794 0.0048427507 -0.026595239
0.0034504477 0.0083653033 -0.025976786
0.0043717138 -0.017842649 -0.019405466
0.0053009554 -0.015113149 -0.021172561
0.0053161406 -0.011964743 -0.023590751
0.0054413173 0.010616069 -0.025013192
0.0052380757 0.015221547 -0.022394814
0.0061731539 -0.024196731 -0.01385899
0.0050232266 -0.019668611 -0.018107418
0.0053378446 0.019383756 -0.019077873
0.0052347113 -0.02527928 -0.011483287
0.005155514 0.02247083 -0.015559474
0.0046656844 0.023733981 -0.012696316
0.0056023235 -0.027230982 -0.0057141059
0.0042826179 -0.026331855 -0.0078033744
0.0052611409 0.024774244 -0.0096656643
0.0051436806 -0.027982242 -0.0012404046
0.0050017489 0.026391268 -0.0050341054
0.005099616 -0.027749276 0.0033497028
0.0051618014 0.026854655 0.00027941022
0.004867339 -0.02617164 0.0080529153
0.0059443312 -0.025260333 0.010565707
0.004947627 0.026409701 0.0053599584
0.0049888901 -0.023774831 0.014005797
0.0051176525 0.023899496 0.012318629
0.0042968225 0.025378518 0.0096380804
0.0049481592 -0.02104965 0.017598445
0.0049219988 -0.01857252 0.019717611
0.0046144747 0.021104433 0.016084006
0.0051268307 -0.016102545 0.021712793
0.0046971147 -0.012273018 0.024181215
0.0048122131 0.014344189 0.022776797
0.0048297453 0.018052166 0.019965926
0.0048335516 -0.0068534701 0.026016168
0.0048165959 -0.0020468459 0.026560448
0.004803637 0.0025696603 0.026732169
0.0046016891 0.0084078806 0.025451059
0.0052635833 0.011384157 0.024412036
0.010262968 -0.0092497673 -0.025428649
0.0099230614 -0.0054681404 -0.026426733
0.0099152355 -0.0008861227 -0.026787834
0.0099997614 0.0047548413 -0.026377931
0.010000138 -0.014834277 -0.021356042
0.009607343 -0.011968499 -0.023759438
0.0098714251 0.010503664 -0.025114888
0.0099659283 0.01549028 -0.022521798
0.0089356722 -0.02403531 -0.014420331
0.0095693348 -0.019671068 -0.017752722
0.0097910697 0.019948103 -0.019081
0.0098757846 -0.027475458 -0.0094877891
0.0093435869 -0.02577121 -0.012133255
0.0094474349 0.022575226 -0.015831921
0.010426564 0.023748336 -0.013121713
0.010184798 -0.028520869 -0.0055322973
0.0098830983 0.025079461 -0.0093133263
0.0098154638 -0.028466249 -0.0011640647
0.0098264432 0.02655516 -0.0051238807
0.0099477228 -0.027884878 0.0031420121
0.009594026 0.027197616 -0.00016359483
0.0096487897 -0.026278408 0.0079101184
0.0096207857 -0.025257004 0.010600913
0.0094714146 0.02686845 0.0050947675
0.0095852315 -0.023727594 0.013957025
0.0094782487 0.023720222 0.012956078
0.0095015448 0.025405997 0.010060732
0.0095420368 -0.021127779 0.01784222
0.0095168464 -0.018684421 0.019867804
0.0092147812 0.021162948 0.016120689
0.0094906762 -0.016072825 0.021953095
0.0092356931 -0.012328424 0.024402402
0.0094064875 0.01446645 0.022926729
0.0094253188 0.018055487 0.020009601
0.0094287265 -0.0069024549 0.026115466
0.0094112903 -0.002029784 0.026693305
0.0093982294 0.002587406 0.026875595
0.0093952622 0.0080426652 0.025775528
0.0093975365 0.011310905 0.024688911
0.014930377 -0.0098104598 -0.02559543
0.014517995 -0.0054526469 -0.026318097
0.01450681 -0.00084806787 -0.026330648
0.014709456 0.004720665 -0.026271848
0.014480561 0.0083871679 -0.025952747
0.016320132 -0.017796146 -0.019293357
0.01449534 -0.014652179 -0.021544095
0.013595498 -0.011773377 -0.024332842
0.014400629 0.011379765 -0.025093105
0.014433183 0.015587907 -0.022817994
0.01445373 -0.024358591 -0.014638068
0.01469209 -0.020117182 -0.017723041
0.014257108 0.020132596 -0.019271467
0.013871458 -0.027413292 -0.010259288
0.014440222 -0.025798673 -0.01283944
0.014354988 0.022693496 -0.016406374
0.01432682 0.023923296 -0.01375214
0.014633281 -0.028957943 -0.0056653549
0.014472188 0.025668046 -0.0089528961
0.014336925 -0.029115938 -0.001078449
0.014233155 0.027245352 -0.0047275992
0.014535505 -0.028242942 0.0031658837
0.014188441 0.027830672 -0.00016030547
0.01424334 -0.026335202 0.008077913
0.014216342 -0.025243318 0.010644305
0.01440325 0.027350724 0.0058724536
0.014181526 -0.023573339 0.013885982
0.014537076 0.023765147 0.012981527
0.014095128 0.025747363 0.010227454
0.014439424 -0.020990448 0.018065561
0.013191632 -0.018867953 0.020127967
0.014293807 0.021220041 0.01636594
0.014380663 -0.016526267 0.022037651
0.014236683 -0.012373344 0.02456552
0.013342254 0.014867784 0.023186009
0.014182493 0.018053101 0.020690201
0.014024212 -0.0069253407 0.026175786
0.014007163 -0.0020205998 0.026704466
0.013991339 0.0029353034 0.027090585
0.013985781 0.0080878204 0.026342403
0.014515099 0.012468254 0.024779029
0.02187537 -0.013208893 -0.024708075
0.019847021 -0.010312028 -0.025851231
0.020037271 -0.0054700854 -0.026744401
0.020024206 -0.00085286103 -0.026561582
0.020008877 0.0049268696 -0.026529962
0.020732969 0.0086296163 -0.026211305
0.020080995 -0.01924994 -0.01925979
0.019791087 -0.015029557 -0.022145297
0.01961571 0.011378421 -0.025422435
0.019794656 0.014502889 -0.02395159
0.019930568 0.017918274 -0.021542026
0.019981869 -0.024310293 -0.015225638
0.019574685 -0.020927206 -0.018152516
0.020016424 0.020909974 -0.018590124
0.021953974 -0.027135475 -0.010037427
0.019419691 -0.026286185 -0.011608157
0.020325081 0.022581266 -0.01588103
0.019250443 0.023778353 -0.013169245
0.019838113 -0.027297955 -0.0058891778
0.019907754 -0.026426993 -0.0076466743
0.019981515 0.024980277 -0.0093464823
0.019428793 -0.0284108 -0.00071123475
0.019489212 0.026624931 -0.0049351733
0.019805295 -0.027656926 0.0034854093
0.019866891 0.027100485 0.00043763209
0.019558769 -0.026184939 0.0072324723
0.020347707 -0.024773872 0.010167026
0.019230567 0.026547641 0.0052844658
0.019557239 -0.023410719 0.013874901
0.019598261 0.023591241 0.012059024
0.01944175 0.025333185 0.00911004
0.019813258 -0.021053178 0.018572273
0.019508811 0.021152152 0.015894573
0.019926006 -0.017192042 0.022256013
0.019569227 -0.01322186 0.024659775
0.017668916 0.015299026 0.023805808
0.019575797 0.018288631 0.021069599
0.019551784 -0.010361292 0.02575974
0.01960846 -0.0071482882 0.026284568
0.019522468 -0.002011349 0.026690498
0.01950847 0.0026121389 0.026970083
0.019498715 0.0081129996 0.026574528
0.019716337 0.013383243 0.024868025
0.026206724 -0.014169915 -0.02501793
0.025767259 -0.010202919 -0.026896849
0.025504738 -0.0055384454 -0.027380263
0.025828382 -0.0011231792 -0.027272496
0.025531288 0.0046469704 -0.02712992
0.025502477 0.0092833024 -0.026461074
0.024912219 -0.019459624 -0.020341005
0.024963075 -0.016247291 -0.022885986
0.025498755 0.01211265 -0.025630476
0.025406919 0.014989778 -0.024111651
0.025447372 0.0181248 -0.021765057
0.02549896 -0.024228416 -0.016237691
0.025413234 0.020847531 -0.01886764
0.02596789 -0.02812718 -0.011099946
0.023636837 -0.026565121 -0.01312854
0.025009762 0.022685297 -0.01556629
0.025717316 0.023753261 -0.012908378
0.025175158 -0.029317386 -0.0055665928
0.025356226 0.02543487 -0.0088886172
0.025143538 -0.029329402 -0.0010921024
0.025002645 0.027002281 -0.0048467824
0.02517833 -0.028420182 0.0034649423
0.025218012 0.027730934 -4.7583446e-05
0.025407674 -0.026378207 0.0079433136
0.024511857 -0.024790658 0.01047626
0.025340775 0.027145958 0.0059177359
0.025414035 -0.023661233 0.013947677
0.02479561 0.023704497 0.012661546
0.025476931 0.025676608 0.010064554
0.024939435 -0.02140775 0.019111898
0.025201362 0.021349404 0.016014973
0.026970811 -0.019846443 0.021311663
0.025108047 -0.016977329 0.023140104
0.02466232 -0.013617197 0.025118351
0.025052451 0.018354459 0.021110766
0.025325235 -0.010849218 0.026264768
0.025046658 -0.0065911952 0.026928192
0.025293835 -0.001656027 0.027280301
0.025042024 0.0024291051 0.027453408
0.024805808 0.0079981228 0.027015178
0.025015049 0.013764679 0.024990764
0.030153904 -0.014582255 -0.024957305
0.03032786 -0.010237047 -0.027042648
0.030159365 -0.0055249734 -0.027879992
0.029584467 -0.00036835036 -0.027906319
0.030430615 0.0043203728 -0.027800169
0.029877687 0.010387736 -0.026669452
0.030381234 -0.019699305 -0.021211116
0.029499384 -0.017190007 -0.02308826
0.030075012 0.015385777 -0.024394579
0.030045602 0.018438525 -0.022081587
0.030412838 -0.024161171 -0.016975015
0.029778458 0.021198127 -0.019166362
0.030347385 -0.028626464 -0.010288487
0.029060338 0.022967361 -0.016282421
0.030262044 0.024043456 -0.014543376
0.029741537 -0.030419834 -0.0049086832
0.030178735 0.026245413 -0.0095329937
0.029899681 -0.030531857 -0.00074429216
0.030057354 0.028148338 -0.0044784839
0.029783523 -0.029308045 0.0040880726
0.028711766 0.028681045 -0.00033859885
0.030721214 0.029235248 0.00082918897
0.029983854 -0.027262196 0.0088435952
0.029695148 0.028582122 0.0049485918
0.030888686 -0.025894074 0.012565458
0.02926573 -0.024258334 0.015032623
0.028778085 0.024587259 0.013085905
0.029942444 0.026404353 0.010994195
0.030003885 -0.022522101 0.018654468
0.029577171 0.022966333 0.01553159
0.029563291 -0.019905571 0.021560267
0.029697308 -0.016628521 0.024067134
0.029673133 -0.014034737 0.025640035
0.029628254 0.0182015 0.022025365
0.029957432 0.020645553 0.018988397
0.029658375 -0.011424946 0.026731135
0.029897302 -0.0062727998 0.027643269
0.029786799 -0.0021768003 0.027729739
0.029610114 0.0026946452 0.027957126
0.029731691 0.0085625006 0.027464561
0.029507084 0.013804831 0.025453925
0.034846127 -0.01520394 -0.0250268
0.034942117 -0.010102488 -0.027001126
0.03475792 -0.0055337846 -0.028146856
0.034750089 -0.0009517509 -0.028507708
0.034549799 0.0046328506 -0.028218525
0.034755915 0.010307293 -0.027197788
0.036532968 0.013336816 -0.026349571
0.03435678 -0.020016098 -0.021566916
0.033825804 -0.017225228 -0.023755262
0.034229018 0.015525743 -0.024882415
0.034930214 0.019093698 -0.022337193
0.034699861 -0.024427505 -0.017125271
0.034290217 0.021521144 -0.020080077
0.034476392 0.023557264 -0.017820001
0.034645788 -0.028163578 -0.010451172
0.034310639 0.025423123 -0.01410186
0.034788299 -0.02950789 -0.0057411026
0.034893714 0.027522082 -0.0091039445
0.034689806 -0.030424088 -0.00040067572
0.03307841 0.028435446 -0.0052109146
0.035672784 0.029143814 -0.0043368782
0.034514613 -0.029538784 0.0037489373
0.034406085 0.029409446 -6.7706322e-05
0.03428138 -0.027883068 0.0090579996
0.03439419 0.02884753 0.0054697692
0.034620926 -0.025937259 0.014147473
0.03346432 -0.024651276 0.016318165
0.034058504 0.02695211 0.011233692
0.03419026 -0.022652406 0.019229811
0.034434162 0.023179555 0.016220702
0.036124773 0.025720151 0.013521866
0.034319997 -0.020088892 0.021840792
0.034297355 -0.017358117 0.023941252
0.034039412 0.018740509 0.021991523
0.034244128 0.020862581 0.019238606
0.034254193 -0.01229591 0.026766144
0.034181222 -0.0065280506 0.028055605
0.034213118 -0.0018735237 0.028401447
0.03457322 0.0028526576 0.028819809
0.034190044 0.0082193939 0.028221767
0.034126665 0.013166868 0.026347019
0.034572262 0.016576765 0.024522498
0.040270157 -0.015833989 -0.025167225
0.040303249 -0.010497498 -0.027275322
0.040524118 -0.0053454465 -0.028923316
0.040100832 -0.00096257532 -0.029434253
0.040513497 0.0042761979 -0.029278215
0.040224127 0.0099542029 -0.027958956
0.040153943 0.013744784 -0.026541665
0.04085144 -0.020461684 -0.02196192
0.040191982 0.016289178 -0.025238708
0.040163107 0.019403974 -0.022998219
0.040218621 -0.024741994 -0.017420059
0.039676256 0.021894621 -0.020767031
0.040519997 0.024052395 -0.018751895
0.039751828 -0.028433386 -0.010314927
0.039861001 0.02622759 -0.014821391
0.040117182 -0.029867038 -0.0053870538
0.040115714 0.027938649 -0.010302299
0.039991572 0.028874753 -0.0073482599
0.039993174 -0.030434862 -0.00069143437
0.039964028 0.029618202 -0.0046332809
0.039673202 -0.030023709 0.0035001461
0.039920248 0.029691538 -3.2838434e-05
0.040043168 -0.028200798 0.009725566
0.039712705 0.028870294 0.0055186651
0.039915495 -0.026123499 0.014928755
0.040004499 0.02718278 0.011127664
0.039866216 -0.022942368 0.019305458
0.039753854 0.023797106 0.016449362
0.039799739 0.025739077 0.013709669
0.039833948 -0.020162376 0.021990612
0.039807715 -0.017426901 0.024050582
0.038491622 0.019213805 0.022943426
0.039750379 0.021575717 0.020343136
0.039906591 -0.012178707 0.027180165
0.039489187 -0.0069394731 0.02851212
0.040040482 -0.0014650032 0.029392811
0.03909684 0.0022103768 0.029691905
0.039558508 0.0086447932 0.028975599
0.039761774 0.013786471 0.02686483
0.04032721 0.017817579 0.024766751
0.040924184 0.0040756506 0.029996863
0.041532598 0.0065219221 0.029825903
0.046024755 -0.0012550929 -0.029956918
0.045784559 -0.015782323 -0.025096089
0.045794405 -0.010669289 -0.027460448
0.046050131 -0.0059217401 -0.029176325
0.043951508 0.00081330363 -0.029960342
0.045830213 0.0046031214 -0.029680032
0.045751549 0.010292009 -0.028367383
0.045726594 0.014146598 -0.026732041
0.046858817 -0.023115549 -0.020159461
0.045617439 -0.020130884 -0.022501532
0.045708023 0.016501512 -0.02538278
0.045704436 0.019843329 -0.022969555
0.046625014 -0.027840907 -0.013662503
0.045729633 -0.026083132 -0.016631369
0.045495193 0.024671653 -0.018617459
0.045500856 -0.028800946 -0.010544237
0.045519259 0.02723637 -0.014018606
0.045631986 -0.029926922 -0.0053300448
0.044623189 0.028259361 -0.010948285
0.045781001 0.029057723 -0.0086202091
0.04558846 -0.029985661 -0.00072105561
0.045478389 0.02979869 -0.0045918347
0.04554449 -0.029804185 0.0038723852
0.04725663 0.02919855 0.0019119999
0.045207139 0.029805388 -0.00021955089
0.045671564 -0.028611179 0.009553764
0.045507241 0.028693883 0.005579473
0.04356239 0.029372767 0.0037073749
0.045437198 -0.026646763 0.014377939
0.045251612 0.027494866 0.011272046
0.045380685 -0.022957044 0.01938571
0.043448202 0.025032207 0.016882934
0.045558292 0.026249625 0.015717831
0.04534857 -0.020151841 0.022048123
0.045137096 -0.017277861 0.024220467
0.044988949 0.022841034 0.020992426
0.045420803 -0.012179168 0.027548267
0.045548666 -0.0060812463 0.029475762
0.04497185 -0.0019089079 0.029783702
0.045221683 0.0010107334 0.029957395
0.044683911 0.0098913098 0.029063096
0.04513412 0.013795272 0.027527915
0.045631457 0.018281519 0.025352363
0.047069427 0.020880803 0.023823628
0.045213412 0.0037839911 0.030112242
0.045574635 0.0072703902 0.029890215
0.050390959 -0.0010207527 -0.030018227
0.050280817 -0.015009238 -0.02554947
0.050392367 -0.010089104 -0.02781786
0.050395396 -0.0061328043 -0.029162323
0.050374441 0.0048122983 -0.029785996
0.050348423 0.010405428 -0.028489059
0.050015289 0.014101038 -0.026625412
0.050353561 -0.023311047 -0.020296987
0.050368119 -0.020047922 -0.022678545
0.050302301 0.016217118 -0.025127184
0.05016847 0.019683205 -0.022680065
0.051140286 -0.028091809 -0.015267927
0.050623223 -0.026400235 -0.017353432
0.051169023 0.021670429 -0.021001749
0.050135825 0.024375578 -0.01861796
0.050419524 -0.029270271 -0.011091584
0.050175462 0.02683823 -0.014492373
0.050483551 -0.029845292 -0.0052885851
0.050438486 0.028235618 -0.010276638
0.049801104 0.02897609 -0.0078743864
0.050182346 -0.029066781 -0.00073627231
0.050074942 0.029266909 -0.0045131273
0.050138652 -0.029036194 0.0038669379
0.049094863 0.029197901 0.0019297525
0.050217956 0.029627252 -0.00029791132
0.049794409 -0.027889816 0.0094129266
0.048488729 0.029166568 0.0056104241
0.050432537 0.030136203 0.0060269511
0.050600979 -0.025993515 0.014031045
0.050008453 -0.024680777 0.01647947
0.049466196 0.029043872 0.01111212
0.050861444 0.030194908 0.009251209
0.0498886 -0.023018666 0.018735085
0.049920116 0.027179021 0.015900733
0.049947284 -0.019896626 0.021695945
0.050220955 -0.016965527 0.024390271
0.049631279 0.023950122 0.020939859
0.051017229 0.026006579 0.018735034
0.049875196 -0.012041403 0.027922736
0.049736917 -0.0063298945 0.029947197
0.049822483 -0.0017308745 0.030160775
0.049800944 0.010190395 0.029345993
0.049804788 0.013229145 0.028152596
0.049816284 0.018167382 0.02566083
0.049825449 0.020896412 0.023986332
0.049810227 0.0028809307 0.030259868
0.049800724 0.0074741999 0.030072659
0.05388356 -0.0013743767 -0.029888824
0.054770023 -0.015274254 -0.025634609
0.054989468 -0.010088193 -0.027934518
0.054990754 -0.0061468454 -0.029091163
0.05636229 -0.00053365791 -0.029777914
0.05513528 0.0049574221 -0.029705755
0.054725841 0.010442921 -0.028766733
0.055404503 0.014782444 -0.026982596
0.056778528 -0.027194178 -0.018295238
0.054953568 -0.02414917 -0.019722709
0.054963551 -0.020016193 -0.022626936
0.053060412 0.01633992 -0.025212687
0.055110168 0.019839263 -0.023321429
0.055078954 -0.029314401 -0.015810212
0.053007044 0.021676339 -0.020962752
0.055228725 0.024173774 -0.018926499
0.055081122 -0.030526858 -0.010467052
0.054754116 0.026930116 -0.014684813
0.056587622 0.029092908 -0.01272921
0.054439157 -0.030722322 -0.004942148
0.052891981 0.028097834 -0.010482913
0.055546965 0.029667128 -0.0090434588
0.056004878 -0.031442523 -0.00021935644
0.053609423 -0.030309238 -0.00080705644
0.054386355 0.03039398 -0.0047373651
0.056121409 -0.031281151 0.0036093302
0.053832144 -0.029973777 0.0045130667
0.054215029 0.030861717 0.00019662076
0.05654056 -0.030665703 0.0077185817
0.054367039 -0.02877993 0.0098289624
0.054282609 0.030874781 0.0055534346
0.054420248 -0.026595835 0.015009861
0.053337734 0.029313037 0.012371668
0.055547494 0.030530419 0.010089443
0.055541582 -0.025551395 0.017742882
0.054459676 -0.023313707 0.019769581
0.054521877 0.0283641 0.016029695
0.054855984 -0.020537019 0.02304011
0.05399403 -0.017680047 0.025208028
0.054601636 0.023889946 0.021832116
0.054454092 0.026481126 0.019094698
0.054886185 -0.015618817 0.027019516
0.054527745 -0.012044824 0.028664015
0.054225992 -0.0068536471 0.030230297
0.0540496 -0.0015339609 0.030236674
0.055023216 0.0022582845 0.029978929
0.055133574 0.0091044791 0.029493699
0.054331489 0.013620936 0.02825165
0.054243438 0.018544517 0.025743727
0.054418508 0.020924453 0.024288783
0.056258749 -0.0044494118 0.030668292
0.056255791 -0.0026177538 0.030506101
0.053178936 0.0041062427 0.030120857
0.05347896 0.0074712252 0.029922111
0.060867146 -0.00025897264 -0.029931342
0.061411597 0.0045001628 -0.030417709
0.060489863 -0.017692622 -0.024401231
0.060498025 -0.015149837 -0.025921058
0.06035313 -0.0098675713 -0.028172858
0.060505912 -0.0055570537 -0.029238453
0.060041498 -0.0019020592 -0.029678324
0.058649544 0.0045250142 -0.029955341
0.060494874 0.0097914413 -0.029550672
0.060210787 0.015245939 -0.027588788
0.060421735 0.017655667 -0.026368394
0.060382247 -0.028250741 -0.018329313
0.060464211 -0.024062201 -0.020044409
0.060250018 -0.020000687 -0.022743313
0.060425956 0.020779528 -0.024084503
0.060551777 0.023519462 -0.021596951
0.06134804 -0.031996947 -0.014255857
0.059986372 -0.030726187 -0.016393015
0.060145959 0.025958132 -0.018816892
0.061312914 -0.031875916 -0.010579541
0.058554973 -0.031559516 -0.010626594
0.059382301 0.027764421 -0.016298426
0.060322024 0.029340142 -0.013689848
0.060341369 -0.03184225 -0.0050643492
0.060225975 0.03083529 -0.0091224499
0.060708527 -0.032170825 -0.00073749083
0.060659897 0.031828817 -0.0047697467
0.060470473 -0.031897776 0.0045151175
0.060580295 0.032015201 -0.00017218362
0.060467757 -0.030991327 0.0090933805
0.05860569 -0.029822297 0.011510396
0.060084555 0.031805623 0.0055513256
0.060358007 -0.028726133 0.0146863
0.060035922 0.030916799 0.010913832
0.060467303 -0.025994685 0.018934216
0.058237683 -0.024028089 0.020908689
0.059830718 0.028787 0.016252993
0.060007773 -0.021142252 0.02397915
0.058183316 -0.019297246 0.02542099
0.059778925 0.023880262 0.022221314
0.060227588 0.026570523 0.019528493
0.059998494 -0.016742842 0.027210107
0.05996947 -0.012258328 0.029111318
0.059948284 -0.0084534865 0.030362006
0.059554476 0.0039807307 0.029897843
0.059914894 0.0083784889 0.029525688
0.059911624 0.013530537 0.02853588
0.059660375 0.018640371 0.026010498
0.059930686 0.020843225 0.024629958
0.059934989 -0.0053448859 0.030959209
0.05992718 -0.001668868 0.030831115
0.060383748 0.0015229282 0.030324018
0.065095976 -7.3640549e-05 -0.030034369
0.064629063 0.0040512397 -0.030329786
0.065085411 -0.017681772 -0.024357656
0.065093681 -0.015149557 -0.025886564
0.065101571 -0.010075985 -0.028033528
0.064917125 -0.0059641469 -0.028926875
0.065097556 -0.0028018672 -0.02949352
0.066001192 0.0054572402 -0.029992254
0.064933762 0.0099793021 -0.029377045
0.065034553 0.014868934 -0.027422637
0.064096354 0.017676953 -0.026144113
0.065410361 -0.028165683 -0.018262677
0.065060593 -0.024112176 -0.020072952
0.065074742 -0.020048013 -0.022618378
0.065062046 0.020056458 -0.024312571
0.065011129 0.023552546 -0.021457732
0.064944059 -0.030890713 -0.015798001
0.065052599 0.026371384 -0.018448273
0.06467098 -0.031664457 -0.0093327109
0.065738827 -0.031421088 -0.011948022
0.065815642 0.028021514 -0.016255442
0.064741299 0.029415773 -0.014099863
0.064803153 -0.032115392 -0.0046883095
0.064620972 0.031434674 -0.008658343
0.06553711 -0.032364983 -0.00060054538
0.065382227 0.032036852 -0.0048342408
0.065158024 -0.032204494 0.0044799
0.064959884 0.032245766 -0.00012005557
0.06478174 -0.031301681 0.0090340627
0.064680234 0.031744253 0.005599576
0.065105334 -0.028810345 0.01477288
0.064814039 0.030825745 0.010695868
0.064561397 -0.025771409 0.019182732
0.065584086 -0.023446446 0.021516012
0.064718209 0.028663889 0.016247867
0.064515375 -0.021334892 0.023519827
0.064611144 -0.018217186 0.025834044
0.064542472 0.024023283 0.02213826
0.06456244 0.026704609 0.019336885
0.064752936 -0.015913058 0.027201064
0.064566135 -0.01214241 0.029010449
0.064586878 -0.0077761021 0.030431306
0.064823866 0.0041156281 0.02993466
0.064813316 0.0083997324 0.029349491
0.064191714 0.013333691 0.02841074
0.064352468 0.018548716 0.025944449
0.064527623 0.02095677 0.024500441
0.064223692 -0.0050290953 0.030972611
0.0645224 -0.0016553313 0.030909514
0.064212792 0.0016873053 0.030382913
0.070024595 -0.015334683 -0.025020448
0.069682188 -0.010032281 -0.027488787
0.06980525 -0.0052649667 -0.028744133
0.069966644 -0.0011265054 -0.029363036
0.069900364 0.0050163697 -0.029587477
0.069837295 0.010158424 -0.02856598
0.069669038 0.01438017 -0.026769631
0.06780827 -0.027390489 -0.018176263
0.069703311 -0.024224272 -0.019212173
0.069676563 -0.020210274 -0.021789093
0.071442693 0.016521422 -0.025079304
0.069461644 0.019813322 -0.023400344
0.067715526 0.022979518 -0.021437503
0.069801629 -0.029046826 -0.015722739
0.071478054 -0.025981216 -0.017801151
0.069548324 0.024841383 -0.018882213
0.069587573 -0.030449612 -0.010618573
0.069350429 0.02740775 -0.015896557
0.068900913 0.029286208 -0.013084728
0.068149023 -0.031592093 -0.0045447578
0.070571229 -0.030697679 -0.0056114015
0.069888994 0.030355904 -0.0092437854
0.068569593 -0.031750534 -0.00038540363
0.071664125 -0.030528594 -0.00043468253
0.069372654 0.031284947 -0.0044578239
0.068525694 -0.031607307 0.004210514
0.07128121 -0.030610587 0.0041725468
0.069605798 0.031318113 0.00033211126
0.068177514 -0.031017911 0.0084675765
0.070454031 -0.029771751 0.0097920643
0.069755062 0.03100073 0.0055053062
0.069442391 -0.027329825 0.01504842
0.06943655 0.029279379 0.012798648
0.068625391 0.030528288 0.0099291559
0.068463147 -0.025348501 0.018313577
0.069666937 -0.02297036 0.020103324
0.069298469 0.027873427 0.016102379
0.069088235 -0.020421498 0.022799142
0.069498509 -0.017325496 0.024948502
0.070974812 0.019832112 0.023441847
0.069640175 0.023044212 0.021537472
0.067936227 0.026348524 0.019071681
0.06796293 -0.015164433 0.027007734
0.069367111 -0.011982112 0.028043419
0.069546044 -0.0067298803 0.029740397
0.071215257 -0.0020898799 0.030038366
0.069534712 0.0028371231 0.029774394
0.068919748 0.0079468125 0.028985422
0.06940636 0.013757683 0.027214654
0.068440408 0.018224385 0.025368223
0.067289025 0.020936137 0.024103245
0.06728746 -0.0044182087 0.030836593
0.068201564 -0.0016646027 0.030661691
0.074180186 -0.013914204 -0.024503114
0.075551465 -0.0099569401 -0.025612459
0.075572208 -0.0053536673 -0.027112529
0.075233266 -0.00060780469 -0.028186904
0.07499516 0.0049187499 -0.028225966
0.074549176 0.010091359 -0.026776757
0.073296919 0.013430086 -0.025949903
0.073616579 -0.022586403 -0.018586051
0.075345822 -0.019480584 -0.020164352
0.075821221 -0.015880324 -0.022537259
0.07696747 0.01133347 -0.024747102
0.075716078 0.015651301 -0.023324344
0.074294373 0.018881254 -0.021996502
0.073448345 -0.027767364 -0.014657949
0.075314 -0.023957407 -0.016008448
0.076977529 -0.021155238 -0.017391935
0.075282753 0.021603487 -0.018880621
0.073789261 0.023854276 -0.017586498
0.074694291 -0.027908161 -0.010624843
0.076888002 -0.025516715 -0.011732043
0.075137585 0.025608886 -0.014048694
0.075087681 -0.028486909 -0.0053554671
0.075768501 0.02779177 -0.0091362195
0.073358215 0.02936518 -0.0081638722
0.075219445 -0.028846551 -0.00050930353
0.076640233 0.028331865 -0.0041966559
0.073687069 0.029787691 -0.0041351174
0.074497536 -0.029179648 0.0042526242
0.07610704 0.028536297 0.00065376313
0.073394269 0.030003078 -0.00025684846
0.075265735 -0.027289374 0.0095349196
0.075404771 0.028624913 0.0059504057
0.072955504 0.029988348 0.0057929615
0.073717192 -0.025852397 0.013793893
0.075662136 -0.023365278 0.015315898
0.074807644 0.027569339 0.011501857
0.074157804 -0.021063911 0.018810011
0.075975768 -0.018006416 0.019879377
0.076098204 0.023698531 0.016830273
0.073122039 0.02643487 0.015936978
0.074033141 -0.016658144 0.022453047
0.074898019 -0.013040924 0.024332924
0.076538198 -0.0084196934 0.02567493
0.076051526 0.014925299 0.023598151
0.074987277 0.018374573 0.02210159
0.073773094 0.022040375 0.020204572
0.072962932 -0.010801439 0.026728127
0.074906573 -0.0059269741 0.027311156
0.074777596 -0.0018477539 0.028317306
0.074863277 0.0030322215 0.028128995
0.07439208 0.0085939895 0.026909128
0.07424058 0.012931951 0.025453322
0.078625739 -0.0079943351 -0.024719195
0.079017207 -0.0053908159 -0.025161661
0.079805501 -0.00066574913 -0.025371667
0.078743428 0.0047921543 -0.025625682
0.078630686 -0.018448312 -0.018650802
0.079920322 -0.014935318 -0.020174194
0.08064872 -0.010067589 -0.022336336
0.081617318 -0.005125911 -0.023179796
0.082285143 -0.00052530685 -0.023273047
0.081302524 0.0050928099 -0.02353086
0.080330856 0.010437405 -0.022600086
0.079206578 0.014392772 -0.021600535
0.078558072 -0.022068428 -0.014473956
0.0802624 -0.019364491 -0.015794251
0.081980124 -0.016160976 -0.017173531
0.082432911 0.012593585 -0.019821484
0.081497386 0.015678737 -0.018775323
0.079604335 0.018563483 -0.018247809
0.079692423 -0.023398643 -0.010628588
0.081945732 -0.020304438 -0.012421885
0.080624908 0.021429097 -0.014013911
0.078442231 0.024147358 -0.01276078
0.078407787 -0.026730342 -0.0043000481
0.081027091 -0.024157368 -0.0056164418
0.082308404 0.022886416 -0.0093481466
0.079990342 0.025130685 -0.0085062496
0.078894898 -0.026865898 -0.0009682175
0.081383727 -0.024762617 -0.00071425724
0.080533698 0.026034826 -0.0041720318
0.079579599 -0.02640675 0.0039803931
0.081969813 -0.024156339 0.0038577579
0.080178291 0.026419023 0.00054525316
0.0785909 -0.026084241 0.0076344805
0.080881558 -0.023053452 0.0096465666
0.082144164 0.02396051 0.0077070622
0.079647206 0.02608411 0.0061065415
0.079392612 -0.021297287 0.014056418
0.081391856 -0.017849389 0.015141313
0.080546103 0.02312096 0.012172082
0.078382082 0.025572913 0.010709789
0.079650663 -0.016147636 0.018858846
0.081065997 -0.013866883 0.020103935
0.082059518 0.015102249 0.018935474
0.081178986 0.018148428 0.017386237
0.079535872 0.021249834 0.016006647
0.079560027 -0.011828483 0.022303039
0.080085926 -0.0069150748 0.023879133
0.080935046 -0.0023492542 0.024414349
0.081097171 0.0025447896 0.024178438
0.08071167 0.0082834717 0.023231551
0.079928033 0.013352784 0.021731554
0.078750849 0.017030003 0.020390632
0.078255735 -0.0020186822 0.026270734
0.078450739 0.0027652797 0.026085753
0.077978872 0.0072324406 0.025537357
0.083997302 -0.0087640723 -0.019689523
0.084415652 -0.0049437233 -0.020445483
0.084822834 -0.00036388007 -0.020851972
0.084272169 0.0046341112 -0.020869775
0.083144777 0.0097919106 -0.02043524
0.084431097 -0.014578458 -0.015360041
0.086017132 -0.0097217532 -0.01656034
0.086747959 -0.0047359611 -0.017302915
0.086859249 -0.00048775179 -0.018081039
0.086386532 0.0053773345 -0.017580008
0.084835924 0.010917846 -0.017866973
0.083766714 0.014969306 -0.017002985
0.084294647 -0.018564675 -0.010631358
0.086207628 -0.014649697 -0.011582328
0.087314501 -0.0089847287 -0.011810724
0.087033726 -0.0043992307 -0.012110239
0.087235093 -0.00038444379 -0.011754087
0.087217391 0.0059189675 -0.013302701
0.086647652 0.011340816 -0.013300195
0.08545956 0.016213413 -0.012929405
0.084041305 0.019121898 -0.01243559
0.083661281 -0.021807218 -0.0048942585
0.085569665 -0.01886085 -0.0059133074
0.086724944 -0.014133264 -0.0059564193
0.08614742 -0.0088513279 -0.0060163806
0.085843071 -0.0040572286 -0.0067941416
0.086133495 0.0004591844 -0.0067673689
0.086803414 0.005848927 -0.0070522577
0.086996764 0.011550061 -0.0076162289
0.086302236 0.016576143 -0.0081785284
0.084904477 0.020534616 -0.0076711145
0.083987452 -0.022018258 -0.00086680811
0.085979924 -0.018047525 -0.00080320251
0.085778669 -0.013863342 -0.0015939891
0.084814072 -0.0083375778 -0.0017443663
0.084931903 -0.0037511019 -0.002040104
0.085191488 0.00083572697 -0.0023344993
0.085716888 0.0068361992 -0.0028621813
0.086631477 0.011846115 -0.0030333053
0.086709715 0.0164325 -0.0033294186
0.085134059 0.021562561 -0.003957307
0.082739972 0.024737289 -0.0029840956
0.084011152 -0.021755151 0.0037220013
0.085519254 -0.018128518 0.0035017869
0.085109189 -0.013543332 0.0032010463
0.084371589 -0.0080417152 0.0028378312
0.084392674 -0.0034554764 0.0025411767
0.084882565 0.001131918 0.002248964
0.085371226 0.0071076136 0.0020343545
0.086436547 0.011858959 0.0013853721
0.087023258 0.016730217 0.0012599429
0.085187756 0.021939093 0.0012579764
0.082667053 0.02491528 -0.00023295224
0.083571747 -0.020928608 0.0083654113
0.084231973 -0.017985376 0.009152825
0.084231824 -0.013199217 0.0089770369
0.084499151 -0.0076850625 0.0083427038
0.08507026 -0.0030974741 0.0080512613
0.085117452 0.0014888337 0.007754853
0.08572612 0.0070196409 0.007659913
0.086534411 0.012499165 0.0070558288
0.086623341 0.017406061 0.0070022498
0.084764861 0.0215008 0.0066599268
0.082711063 -0.017196173 0.013239678
0.084536329 -0.01289334 0.013840422
0.085787974 -0.0074764821 0.013854965
0.085858725 -0.002883177 0.013370964
0.085893244 0.0018299408 0.013001197
0.085868709 0.0072376188 0.012785195
0.085988849 0.012861018 0.012960416
0.085172959 0.017833337 0.011950061
0.083687283 0.02062428 0.011361214
0.083901756 -0.012393143 0.018460091
0.085111648 -0.0072109811 0.018234052
0.085594654 -0.0020179083 0.017636346
0.085762843 0.0021455791 0.017879942
0.085440412 0.0076299431 0.017150288
0.084318444 0.013173938 0.017360048
0.08342766 0.017276186 0.015873186
0.08330258 -0.0061537949 0.021496216
0.083802246 -0.0022116606 0.021768725
0.083961934 0.0023822607 0.021586712
0.083601974 0.0074589234 0.020839209
0.082692899 0.012403955 0.01992069
0.087653972 0.00086816237 -0.016129699
0.087652236 0.0013322772 -0.013703432
0.087555759 0.0048932098 -0.010864446
0.096939035 -0.0076967212 -0.0047124755
0.096750252 -0.0039189029 -0.0064689447
0.096754946 0.0006512485 -0.0055126105
0.097021289 0.004107628 -0.0050847954
0.096474901 -0.0083952872 -0.0014966938
0.095210887 -0.0036378652 -0.0018051589
0.094909593 0.0011996748 -0.0024905759
0.096801363 0.0061728912 -0.0023882799
0.096932039 -0.0070425523 0.0017002199
0.095911816 -0.0033574849 0.0022754266
0.095340215 0.0014140329 0.002743195
0.09668763 0.00644068 0.0020672041
0.10083569 -0.0080854315 -0.010499366
0.10004142 -0.0045933304 -0.011507974
